# .PCD v0.7 - Point Cloud Data file format
VERSION 0.7
FIELDS x y z
SIZE 4 4 4
TYPE F F F
COUNT 1 1 1
WIDTH 1280
HEIGHT 1
VIEWPOINT 0 0 0 1 0 0 0
POINTS 1280
DATA ascii
0.090285905 0.060180843 -0.064513765
-0.07046631 0.070484281 -0.069988392
-0.064314127 0.072392546 -0.065654241
-0.055414692 0.074928641 -0.065214306
-0.045163218 0.076597571 -0.064875819
-0.034847509 0.076990478 -0.065478966
-0.025083726 0.0760068 -0.065791681
-0.014481763 0.07579153 -0.065966263
-0.004905181 0.074903585 -0.066229329
0.0045614727 0.074055888 -0.065356895
0.014863729 0.072166257 -0.064609498
0.025660947 0.071778201 -0.06372875
0.035060272 0.072894335 -0.063799888
0.044738311 0.073709659 -0.063707329
0.054720078 0.073272072 -0.063085966
0.064025015 0.072438546 -0.06162269
0.073516741 0.071160361 -0.061941948
-0.031422507 -0.040857919 -0.054113854
-0.024654452 -0.043476194 -0.054709181
-0.015194175 -0.043891788 -0.05575192
-0.0050975094 -0.04239735 -0.055339191
0.0029258421 -0.041055199 -0.052521929
-0.036752481 -0.035238069 -0.054687537
0.0062019182 -0.038642395 -0.055921212
0.015287802 -0.034523211 -0.054799974
0.021529635 -0.031337969 -0.052940484
-0.042067666 -0.024561305 -0.054572359
-0.039908867 -0.029589122 -0.056158371
0.025899556 -0.026661949 -0.055677857
0.031474713 -0.022007674 -0.053504139
-0.046309184 -0.014507621 -0.05508884
0.036056183 -0.015799614 -0.055252377
0.04059051 -0.010635879 -0.051522873
-0.051038075 -0.003353846 -0.054910503
-0.049122766 -0.0078953849 -0.05541452
0.039731432 -0.0098202433 -0.058120955
0.043841988 -0.004914416 -0.055215396
-0.054429762 0.0048958883 -0.054742306
0.048581231 0.0015078288 -0.056045551
0.054391678 0.0058016297 -0.055188499
0.063736252 0.0088379877 -0.054048993
0.070653513 0.0096285231 -0.050050668
-0.060223084 0.019389795 -0.051603392
-0.058031075 0.014373449 -0.055132017
0.066778995 0.010886349 -0.057756662
0.075187013 0.014268139 -0.055179477
0.081631564 0.018513033 -0.052689981
-0.062496353 0.025228184 -0.055100799
-0.059931219 0.020197678 -0.057507586
0.079319179 0.020329429 -0.059426766
0.084385969 0.024688154 -0.054239109
-0.071027339 0.038646497 -0.057563685
-0.067577384 0.034418095 -0.055818278
0.087673366 0.034693528 -0.055078506
0.090241 0.039813574 -0.051057227
-0.074089319 0.044889145 -0.055283803
-0.069871388 0.040326737 -0.050762251
0.089252561 0.044133011 -0.05677025
0.090571269 0.046280194 -0.05206684
-0.07530003 0.055237733 -0.055037625
0.088940114 0.055714104 -0.05428651
0.090301789 0.051683716 -0.053956732
-0.071720459 0.063593403 -0.055841498
-0.06762968 0.067752019 -0.05407254
0.076968059 0.068753548 -0.053926539
0.084145829 0.064027801 -0.055651441
-0.062603705 0.072048962 -0.055334996
-0.054957706 0.075077482 -0.055769369
-0.044914987 0.077292681 -0.05474411
-0.034570299 0.078314371 -0.054987773
-0.024577586 0.078471489 -0.05552334
-0.015185935 0.078307159 -0.055409934
-0.0050726803 0.077501811 -0.055068079
0.004768278 0.075680226 -0.054923553
0.015373707 0.073180817 -0.055490032
0.025089046 0.071712561 -0.054801553
0.035289917 0.072741397 -0.055080444
0.045379508 0.074689165 -0.055167545
0.054750368 0.074261524 -0.055246182
0.064378388 0.07258559 -0.055207692
0.073125727 0.071401618 -0.055975042
-0.03053687 -0.040388338 -0.045857947
-0.025352772 -0.043113463 -0.044866636
-0.015101377 -0.045288205 -0.045012329
-0.0047946912 -0.044662628 -0.044675473
0.0048237657 -0.042344827 -0.04444709
0.011522896 -0.040427417 -0.041890778
-0.035445813 -0.035742395 -0.044745531
0.0094842017 -0.039626069 -0.048353087
0.015112679 -0.037508629 -0.045723099
0.023780046 -0.032293577 -0.044476822
-0.042045683 -0.025016269 -0.045134928
-0.039825246 -0.029605618 -0.045907732
0.028345827 -0.027867693 -0.045916047
0.03288288 -0.023517668 -0.044560071
-0.046118841 -0.015308063 -0.045491003
0.037919763 -0.016387459 -0.045744613
0.041414976 -0.011386155 -0.043789696
-0.051313635 -0.0024928851 -0.045340359
-0.049216047 -0.0075949952 -0.044614755
0.045612134 -0.0045323423 -0.044799019
-0.054197587 0.0043177567 -0.045300346
0.049291886 0.00049017288 -0.045620423
0.054542188 0.0038530566 -0.044950619
0.064331844 0.0066414531 -0.044861972
0.073706046 0.0083339233 -0.043948319
-0.060447741 0.018871171 -0.045070089
-0.058208779 0.013586716 -0.045132317
0.077851839 0.011469438 -0.046489161
0.083386764 0.016108582 -0.044870552
-0.06314189 0.025352977 -0.045449831
0.087821722 0.025063181 -0.045226108
0.090129986 0.028436854 -0.04090374
-0.066903494 0.034748565 -0.044992559
0.089339778 0.03217791 -0.04816924
0.09141852 0.035553798 -0.04427512
-0.070929304 0.04652302 -0.045589875
-0.069423631 0.042670742 -0.043004703
0.092430204 0.045502942 -0.044441964
-0.071610786 0.053947486 -0.045576736
-0.069534793 0.058634661 -0.041980147
0.087769389 0.056126382 -0.044836286
0.090885557 0.051633414 -0.04442108
-0.070647299 0.060680963 -0.047969397
-0.066556543 0.065707453 -0.044467401
0.026819736 0.069182634 -0.042522561
0.034772262 0.06903436 -0.043263916
0.043896981 0.069301136 -0.041848414
0.055213407 0.069314599 -0.041744068
0.065148965 0.06871634 -0.043813996
0.074665442 0.066217639 -0.044869125
0.082152672 0.062050562 -0.045382842
-0.061634708 0.071467131 -0.045745663
-0.054978974 0.074776515 -0.045016266
-0.045100003 0.077427261 -0.04536283
-0.034725681 0.078629121 -0.045193359
-0.025144184 0.078736693 -0.04489791
-0.015058131 0.078010619 -0.045296952
-0.0052618524 0.07679873 -0.044941809
0.0045046066 0.07485605 -0.045279928
0.014942387 0.072422951 -0.045995712
0.023768099 0.070719585 -0.046882819
0.034836937 0.070511088 -0.047639038
0.045525711 0.071256481 -0.046459842
0.054434024 0.071048737 -0.046411641
0.063830957 0.070762195 -0.048849631
-0.045198504 -0.061189722 -0.030405695
-0.036645118 -0.061302438 -0.030525573
-0.027466876 -0.060642377 -0.030087112
-0.050462853 -0.05692694 -0.030248381
-0.0452732 -0.054884315 -0.031276271
-0.035006471 -0.055082664 -0.032160435
-0.025186893 -0.05512163 -0.031827819
-0.015585652 -0.052764077 -0.031333674
-0.0092462953 -0.051366076 -0.030307958
-0.044088311 -0.045147851 -0.0309493
-0.034745835 -0.044920549 -0.032885469
-0.025630839 -0.044720259 -0.036455728
-0.014221969 -0.04754281 -0.035997272
-0.0049964907 -0.046857476 -0.034496397
0.0053161886 -0.044404071 -0.034895383
0.013992628 -0.041510168 -0.033483874
-0.042471692 -0.034950316 -0.032105707
-0.036391418 -0.03625552 -0.035993423
-0.029868545 -0.039960857 -0.039186828
0.017777449 -0.038958117 -0.035625722
0.024793793 -0.034277312 -0.034130722
0.030122068 -0.030127471 -0.031167831
-0.043800011 -0.02530249 -0.0349438
0.029401433 -0.029370816 -0.037671283
0.034030039 -0.024839588 -0.03471363
-0.04674558 -0.015218152 -0.034982137
0.038655423 -0.018085165 -0.036240704
0.042014301 -0.012636928 -0.035130441
-0.051095977 -0.0025291466 -0.035300076
-0.049159039 -0.0079507697 -0.035615396
0.046681721 -0.0046240091 -0.035170913
0.050465338 -0.00042480775 -0.031825852
-0.054060366 0.0053115422 -0.03484343
0.055301484 0.0025659183 -0.035056211
0.064607777 0.0037655183 -0.034583166
0.074276075 0.0053053596 -0.034713835
0.08108215 0.0090564582 -0.033682264
-0.0605901 0.019343318 -0.035343587
-0.05806563 0.014345691 -0.034938581
0.084943257 0.014492042 -0.03476923
-0.063157097 0.024630496 -0.03477224
0.088905238 0.022305902 -0.03518736
0.090890296 0.027245108 -0.033847313
-0.067077659 0.035121359 -0.035270508
0.093097575 0.034847271 -0.034579404
-0.070072196 0.04854916 -0.039909806
-0.068946101 0.044461399 -0.035613395
0.089414574 0.049779933 -0.030782664
0.092978239 0.044983163 -0.035514064
-0.0702205 0.051034685 -0.039823059
-0.068760663 0.05510975 -0.035449944
0.079391688 0.059965525 -0.030737992
0.085813247 0.055294652 -0.034453429
0.090388633 0.051021904 -0.037968315
-0.06415797 0.065395184 -0.035568833
-0.059064083 0.069164097 -0.031457357
0.016906729 0.068831041 -0.033241875
0.025044052 0.067020297 -0.034761969
0.034726791 0.065728068 -0.034997344
0.044759437 0.066551313 -0.035007939
0.054847676 0.066998936 -0.034980137
0.065041907 0.065996103 -0.034823813
0.075261213 0.062961474 -0.03467501
0.080907464 0.060638446 -0.03729333
-0.060359705 0.070776984 -0.038532399
-0.055097304 0.073014408 -0.03570012
-0.045283996 0.076229148 -0.034541037
-0.034786187 0.077790819 -0.03496889
-0.024721039 0.077959299 -0.035590891
-0.015576182 0.07714121 -0.035404794
-0.0051280716 0.075601533 -0.034713183
0.0051564551 0.073093243 -0.035379797
0.013986826 0.070981272 -0.037490323
-0.05259556 -0.070756137 -0.021419812
-0.045346495 -0.071301736 -0.022767173
-0.035046916 -0.071015842 -0.022292769
-0.028235517 -0.070362613 -0.021278625
-0.06307321 -0.063769288 -0.022555886
-0.054578781 -0.065513447 -0.026454728
-0.044342432 -0.066025905 -0.028114857
-0.034588825 -0.066800043 -0.027225966
-0.024799578 -0.065615006 -0.026004525
-0.015135459 -0.063915245 -0.024108971
-0.0081252242 -0.061567318 -0.022706646
-0.064111829 -0.055202231 -0.023980025
-0.055229396 -0.055244405 -0.028765913
-0.022060379 -0.05934608 -0.029783174
-0.01373643 -0.056702644 -0.028822606
-0.0047793812 -0.055259731 -0.025402896
0.002859226 -0.051590558 -0.022988217
-0.064433396 -0.045204565 -0.022739775
-0.055345781 -0.04514404 -0.027397368
-0.048351575 -0.043787211 -0.029488055
-0.0015103158 -0.049166929 -0.028555335
0.0062125321 -0.047426984 -0.026359987
0.015336575 -0.043113243 -0.025290916
0.020719236 -0.040363774 -0.021903086
-0.063423142 -0.035067309 -0.021424107
-0.055098962 -0.035202514 -0.025117917
-0.047825906 -0.035132665 -0.028755218
0.019908646 -0.039321724 -0.029344089
0.025338339 -0.035797764 -0.025045954
0.03075964 -0.030850066 -0.024002722
-0.060661014 -0.028904468 -0.020163896
-0.053492241 -0.025804073 -0.022601927
-0.047921076 -0.024510451 -0.027198536
0.03590773 -0.024500137 -0.025012594
-0.050951764 -0.017833482 -0.020615088
-0.048429552 -0.01517728 -0.02502838
0.039363809 -0.019349337 -0.026645582
0.042858463 -0.01479627 -0.024717502
-0.050865524 -0.0026108641 -0.025339808
-0.049555987 -0.0078371949 -0.02504888
0.047861043 -0.0064571616 -0.026071163
0.053964008 -0.0038417298 -0.02357957
0.065335892 -0.0018173952 -0.023388555
0.072589569 -0.0009645847 -0.022118626
-0.053356238 0.0053540417 -0.024839943
0.056168184 0.00068328151 -0.028198309
0.06505762 0.0010400334 -0.028254505
0.075684197 0.0023796337 -0.025624895
0.082223311 0.0073631108 -0.024400206
-0.060123537 0.019911788 -0.027461573
-0.057402421 0.015269345 -0.024844708
0.087155156 0.015151259 -0.024889901
0.090002373 0.019586384 -0.021073587
-0.062845059 0.025625516 -0.02526457
-0.059299204 0.020370651 -0.021105578
0.089693151 0.021765539 -0.027450031
0.091630414 0.025098665 -0.023739038
-0.066598713 0.035566371 -0.024548315
0.093905285 0.034994189 -0.025018074
-0.067755818 0.04498674 -0.024778321
0.088706255 0.048445169 -0.023671439
0.092126004 0.043989059 -0.025598602
-0.06651178 0.054845531 -0.025178602
0.035405491 0.059603296 -0.020725198
0.040871371 0.059800308 -0.020606061
0.076875389 0.058646474 -0.023676394
0.083821088 0.053930383 -0.025213778
-0.062727898 0.062479287 -0.025685364
-0.056376334 0.067547828 -0.023793655
0.0065549198 0.069120087 -0.023473131
0.014788738 0.06668023 -0.025058622
0.024855126 0.063202485 -0.024666788
0.034680519 0.061730467 -0.025455901
0.044749711 0.062611081 -0.02547361
0.055616789 0.063686788 -0.025016995
0.064799652 0.063001983 -0.024730021
0.072640218 0.061569296 -0.025618946
-0.052613672 0.07135316 -0.026548775
-0.044752911 0.073559172 -0.02506618
-0.035127729 0.075361282 -0.02552864
-0.025810828 0.075884253 -0.0253492
-0.015137028 0.075117141 -0.025150763
-0.0049508349 0.073105842 -0.024341647
0.0041925372 0.071352355 -0.027417915
-0.053305645 -0.071034156 -0.01487941
-0.044761188 -0.072175622 -0.014684508
-0.035138447 -0.071841486 -0.015035521
-0.026133828 -0.070987441 -0.014860644
-0.065500706 -0.06463597 -0.014962504
-0.058331836 -0.069344856 -0.013921209
-0.021225715 -0.069682054 -0.014810626
-0.01528319 -0.067834832 -0.015316165
-0.0061739865 -0.063056633 -0.015240805
-0.071488284 -0.054711536 -0.013449581
-0.069101252 -0.055749923 -0.017718581
-0.0010589064 -0.058951087 -0.015934691
0.0044205911 -0.05431734 -0.015041006
-0.072556905 -0.04525362 -0.013844664
-0.068905197 -0.044338439 -0.018685469
0.0094611701 -0.049120318 -0.019407388
0.015309734 -0.045766018 -0.015270324
0.021124825 -0.041113142 -0.01475999
-0.072527722 -0.03481818 -0.013173726
-0.067077346 -0.033607408 -0.018361421
0.02610467 -0.036455486 -0.015120918
0.030927515 -0.031609386 -0.014908707
-0.071475536 -0.027612168 -0.011816337
-0.064903423 -0.024830846 -0.01481487
-0.057986651 -0.023637855 -0.018230824
0.035885379 -0.025922842 -0.015004763
0.040881481 -0.020495445 -0.013090496
-0.061839674 -0.017950201 -0.011485797
-0.055071887 -0.015282704 -0.015251372
0.044841368 -0.016115779 -0.015726989
0.052944053 -0.012188574 -0.013765966
0.061307222 -0.01038165 -0.011268757
-0.052178871 -0.0050808671 -0.014697085
-0.049886607 -0.0092805605 -0.01996999
0.04992209 -0.0099516558 -0.019062722
0.056860596 -0.0082653388 -0.016997801
0.064928263 -0.0067055142 -0.015575375
0.074072048 -0.0034173832 -0.014191014
-0.052972652 0.004564187 -0.01468406
0.078632079 0.0011430905 -0.017608209
0.083988994 0.0054728468 -0.014797898
-0.055883102 0.014598483 -0.015290896
0.088213995 0.012649503 -0.016415896
0.091666244 0.01684132 -0.013673688
-0.061434139 0.027123176 -0.01593207
-0.058737088 0.022765061 -0.013877328
0.094239481 0.02485992 -0.014696088
-0.06449385 0.035148729 -0.015509691
0.094934717 0.035088461 -0.015152655
-0.065664351 0.044968776 -0.015071372
0.086791553 0.047550481 -0.015112867
0.091498084 0.042704623 -0.015320822
-0.063306138 0.054552626 -0.015254668
-0.05783347 0.058784962 -0.011811602
0.018536977 0.05938454 -0.010973371
0.026092926 0.058107097 -0.013549968
0.035353962 0.057223991 -0.015143683
0.044754535 0.058384016 -0.01504673
0.056206755 0.058811914 -0.012534052
0.065943845 0.058036197 -0.014112913
0.074640617 0.055530194 -0.015459085
0.082071774 0.051451426 -0.01596117
-0.060693264 0.061002772 -0.018222725
-0.054767404 0.063838735 -0.015249158
-0.045598287 0.067692868 -0.013298406
-0.037656382 0.069036819 -0.011732215
-0.026549544 0.069918156 -0.010443226
-0.013993258 0.069812723 -0.011312002
-0.0046376679 0.068529263 -0.013214535
0.0054883305 0.066035293 -0.015158096
0.01493932 0.062734492 -0.015547519
0.023485655 0.060944363 -0.018199669
0.048144326 0.060517687 -0.018534981
0.054597396 0.060979072 -0.017671991
0.063608773 0.060575526 -0.018185491
-0.043452866 0.070948713 -0.017908299
-0.03451341 0.071830168 -0.016236011
-0.024986934 0.07237412 -0.015545665
-0.014721578 0.071790606 -0.015671089
-0.0067634499 0.071047418 -0.017443234
-0.044327997 -0.070658818 -0.0091833333
-0.035841182 -0.070416085 -0.0093195979
-0.028636673 -0.070317067 -0.0090514841
-0.064450212 -0.063419633 -0.0048152651
-0.054990556 -0.067145281 -0.0053057792
-0.045165729 -0.067060433 -0.0041367146
-0.035406258 -0.066483818 -0.0035643219
-0.02522645 -0.066654854 -0.0043066223
-0.014476963 -0.065530233 -0.0052259299
-0.0064979624 -0.062605962 -0.0064611845
-0.072639503 -0.053919449 -0.0050994507
-0.068819344 -0.05896908 -0.0033770469
-0.0024178508 -0.058888499 -0.0038414851
0.0047474173 -0.053912882 -0.0051554218
0.01041624 -0.050094157 -0.0086815059
-0.076449893 -0.044822637 -0.0050047734
0.0096283611 -0.049671538 -0.00080723892
0.015367595 -0.045868725 -0.004697633
0.021468604 -0.041155431 -0.0051882681
-0.077470466 -0.034934528 -0.0046743006
0.026746958 -0.036351781 -0.0047138561
0.031507365 -0.031588033 -0.0037690252
-0.074512266 -0.024581579 -0.0052036489
-0.068880327 -0.020620033 -0.0085374499
0.036454689 -0.02633464 -0.0054142219
0.043660782 -0.021400495 -0.0034266806
-0.071929805 -0.01713655 -0.002053834
-0.065952845 -0.014210424 -0.0047663082
-0.058267742 -0.011503092 -0.009138518
0.046549164 -0.018742194 -0.0063858004
0.055475801 -0.015660767 -0.0052625495
0.064977691 -0.012855786 -0.0043774405
0.072565824 -0.011142886 -0.0020000956
-0.061924186 -0.0073371842 -0.0018847921
-0.056521378 -0.0044163931 -0.0056699119
0.067513198 -0.0095332693 -0.0084452992
0.075856969 -0.0064590704 -0.0057535977
0.083654352 -0.0031672083 -0.0032504725
0.091745637 -0.00029726245 -0.00086413976
-0.05424514 0.0053402064 -0.0052384827
0.086823449 0.0031745175 -0.0071110893
0.094348878 0.005690441 -0.0035791802
0.10137486 0.0089205513 -0.00099900598
-0.054961871 0.015421711 -0.0053253071
0.095786288 0.013977062 -0.007179935
0.10324684 0.015866041 -0.0027442172
-0.060155302 0.029553475 -0.0091865463
-0.057116114 0.024834828 -0.0052701505
0.098401979 0.025136892 -0.0084760236
0.10486525 0.025038844 -0.0031844426
-0.061494403 0.036358077 -0.0070879729
-0.058800619 0.034374248 -0.003217078
0.097264171 0.036773816 -0.005584111
0.10272495 0.033455227 -0.0027077191
-0.062012769 0.044824928 -0.0067626894
-0.057846691 0.046850078 -0.002174082
0.077686287 0.048460186 -0.0027973726
0.085661016 0.045256171 -0.0047296048
0.092781089 0.041303113 -0.0048274258
-0.060982235 0.051808827 -0.0085279178
-0.055053566 0.055089459 -0.0053735231
-0.04746807 0.058206201 -0.0019819131
0.0071786847 0.059122905 -0.0017971758
0.015296741 0.057350818 -0.0043039876
0.024778344 0.054599717 -0.0049449052
0.034750458 0.053181257 -0.0049442314
0.045095567 0.054926537 -0.005257898
0.055112198 0.056015093 -0.0056497287
0.065171972 0.053985901 -0.005218938
0.073659219 0.051494777 -0.00615572
-0.051569045 0.061138712 -0.0083716922
-0.043699842 0.063045114 -0.0052212756
-0.035230268 0.065759279 -0.0049688928
-0.025202677 0.06728866 -0.0052587073
-0.015343597 0.067006886 -0.0052197385
-0.0054890541 0.064763352 -0.0048657209
0.0049249404 0.061880235 -0.0057451441
0.011589921 0.060600545 -0.0081370715
-0.061787762 -0.060831998 0.0016689523
-0.05432006 -0.061652042 0.0025967422
-0.045363244 -0.062069532 0.0023568023
-0.035135463 -0.061825816 0.0022056678
-0.024929443 -0.061594561 0.0020085883
-0.015830634 -0.061179653 0.0018400144
-0.0091809481 -0.060620833 0.0006988385
-0.072317019 -0.052053988 0.0040218914
-0.065681539 -0.056162793 0.0056936559
-0.055293895 -0.057893943 0.0078146365
-0.04479729 -0.058299486 0.0079614893
-0.034935892 -0.058102705 0.007260601
-0.024972364 -0.057421621 0.0072308928
-0.015403751 -0.057610989 0.0064568138
-0.0049580769 -0.056028336 0.0056906147
0.0045474586 -0.05203839 0.0050695003
-0.080161147 -0.040376123 0.0067497082
-0.077215634 -0.045266941 0.0053436114
0.0093527315 -0.049458154 0.0057503851
0.014702913 -0.046149403 0.0050581768
0.022005755 -0.04134633 0.0061947647
-0.081310019 -0.035034455 0.0056479019
-0.07968802 -0.033940587 0.00060234976
0.026920557 -0.036921874 0.0048028654
0.031795263 -0.032119986 0.0048149391
-0.081601337 -0.025451748 0.0073280078
-0.078490548 -0.02408066 0.0018927465
0.037002075 -0.027336994 0.0042623179
0.044650827 -0.023677997 0.0047749975
0.054753039 -0.021596111 0.0063283457
0.06357941 -0.021056017 0.0087985732
0.070169382 -0.020425998 0.0098314621
-0.080433108 -0.018008377 0.0090796277
-0.075602978 -0.014685647 0.0047545056
-0.068880565 -0.011080903 0.00080550474
0.056148522 -0.018922823 0.0017351963
0.06510365 -0.017716037 0.0037704785
0.075272016 -0.015768873 0.0053618867
0.084436625 -0.012938097 0.0061680623
0.092315711 -0.011938491 0.0086764656
-0.072436728 -0.0065401802 0.0074835028
-0.065985382 -0.0048382501 0.0033162169
-0.059316363 -0.00052179553 0.00082306139
0.079910308 -0.0092305047 0.00038159732
0.086418599 -0.0073183095 0.0020349391
0.095415816 -0.0052235816 0.0049271677
0.10209449 -0.0031418668 0.0076230383
-0.063904844 0.0042774295 0.0071537006
-0.05790735 0.0051059588 0.0023988835
0.097903125 0.0017308175 0.0013320092
0.10492327 0.0052419626 0.0042043165
0.11158478 0.0079379436 0.0086065335
-0.060919184 0.011017511 0.0091031324
-0.055921063 0.015843684 0.0046201688
0.10799373 0.013586222 0.0018649957
0.11296922 0.015641408 0.0064650364
-0.054724406 0.025093973 0.0052484008
0.10931165 0.022851093 0.00050258252
0.11344586 0.025230648 0.0047186138
-0.05356263 0.035653301 0.0059482693
0.0992065 0.039492644 0.0010406257
0.10634105 0.036835603 0.0027150176
0.11323334 0.034224682 0.0063613169
-0.053726822 0.044489436 0.0031944395
-0.047621228 0.046480004 0.0078720376
0.017501775 0.049066778 0.0092129596
0.025929391 0.048465826 0.0071575241
0.033607032 0.048899535 0.0072729611
0.066721879 0.0491639 0.0074520209
0.075076066 0.047088888 0.0052132076
0.085122786 0.044069488 0.0048396178
0.09504921 0.042040281 0.0057147602
0.10324613 0.041217525 0.0074647614
0.11014153 0.040317319 0.0097648818
-0.050919157 0.051301543 0.0017032214
-0.044522624 0.054051299 0.0041973181
-0.035195913 0.057369549 0.0065872995
-0.024981847 0.058971226 0.0086356113
-0.014119769 0.059209399 0.0086084353
-0.0036964128 0.0581242 0.0064794403
0.0050603249 0.055514961 0.0059244614
0.014871066 0.052603032 0.0047857519
0.023555841 0.051252052 0.0026221345
0.036227468 0.050860204 0.002902163
0.045414958 0.052089967 0.0048834295
0.055118974 0.052338302 0.0048141466
0.063994251 0.050989337 0.0037094462
0.070608199 0.050032839 0.00059808017
-0.040809102 0.06040765 0.00015726296
-0.034333799 0.061339229 0.0021366756
-0.024846399 0.062303446 0.0037102308
-0.015166624 0.062297825 0.0035470175
-0.0063309097 0.061316259 0.0022829222
2.3487526e-05 0.060441092 0.00055286591
-0.064102754 -0.05195988 0.013460642
-0.055491351 -0.053327341 0.014162556
-0.045123763 -0.053539921 0.014805639
-0.034725536 -0.053390395 0.014820261
-0.024615925 -0.053579777 0.014735653
-0.014711232 -0.05421776 0.014569137
-0.0050650015 -0.054054037 0.014287328
0.0048563792 -0.052388735 0.015212649
0.011198914 -0.05085329 0.01738997
-0.080145061 -0.040559608 0.012283112
-0.07436116 -0.0451671 0.014795525
-0.066423379 -0.048152432 0.017980492
-0.055830073 -0.04939292 0.019007178
-0.044569269 -0.049550042 0.019620163
0.0093506649 -0.049782474 0.011411469
0.015659155 -0.047287077 0.014470135
0.022766031 -0.042703319 0.015819974
-0.082889162 -0.035153981 0.014823513
-0.079590201 -0.039537739 0.018244738
0.027778279 -0.037670784 0.014187611
0.033663999 -0.032666951 0.015416731
-0.085094601 -0.024987351 0.015068037
0.038173385 -0.028949276 0.013533353
0.045164887 -0.02709933 0.015421344
0.054843925 -0.025251953 0.014969176
0.064731337 -0.024087874 0.014846575
0.074766077 -0.022810968 0.014975342
0.084763251 -0.022162804 0.016961901
0.092388518 -0.020963892 0.018374776
-0.083229385 -0.015365205 0.015018097
-0.079042122 -0.012031143 0.011043788
0.078449436 -0.019343141 0.010992934
0.08565034 -0.018235922 0.01226812
0.095574006 -0.016201956 0.014926112
0.10341478 -0.012593682 0.017596481
-0.081577353 -0.0074629923 0.017056078
-0.076725438 -0.0041870866 0.01336997
0.098932095 -0.0099223042 0.010509122
0.10632119 -0.0060928483 0.014298975
0.11144546 -0.0027755075 0.017583419
-0.073523737 0.0042180303 0.015748318
-0.067248806 0.0074756988 0.012048175
0.10900274 0.0012488182 0.010672278
0.11512557 0.0054628593 0.015171576
-0.071581751 0.010652947 0.019214753
-0.064007372 0.014133088 0.015161148
-0.058571719 0.018015288 0.012412448
0.1178505 0.014411552 0.014426885
0.12016408 0.017301193 0.01912179
-0.060558021 0.020481523 0.019088382
-0.054769117 0.024898175 0.014774011
0.11880169 0.024675611 0.014341531
0.12024619 0.022971531 0.019239742
-0.050826423 0.032515913 0.013794622
-0.047633212 0.036400866 0.016787849
0.11664533 0.035611078 0.01503953
-0.043911707 0.044075359 0.014148002
-0.036744643 0.047598284 0.017111549
-0.029760465 0.049680602 0.019114146
-0.0018839025 0.049201671 0.018541126
0.0054826238 0.047575086 0.017306721
0.01485359 0.046149079 0.014811115
0.024771819 0.044410575 0.014802871
0.034874886 0.046458077 0.015361847
0.044193447 0.049149692 0.016554009
0.055744562 0.048905324 0.017026691
0.065428674 0.047779933 0.01493809
0.07530795 0.045745704 0.014880936
0.08521153 0.044488546 0.015057634
0.095262565 0.043927677 0.015080245
0.1050979 0.043012794 0.015164055
0.11258689 0.04094708 0.015660783
-0.04111043 0.050326452 0.010541704
-0.034279112 0.052278936 0.013175214
-0.025061535 0.053966485 0.015302873
-0.015550322 0.054826044 0.014947708
-0.0049694129 0.052963637 0.014548116
0.0037068091 0.0516495 0.012522135
0.010709099 0.050213613 0.010937043
0.046312936 0.050574746 0.012808856
0.05391825 0.050651841 0.011937512
-0.020214813 -0.070630528 0.029219437
-0.015096567 -0.071680203 0.029152036
-0.005310765 -0.071352303 0.028895833
0.0026016473 -0.070986412 0.029369853
-0.031895708 -0.062762998 0.028486423
-0.024504604 -0.064443633 0.027071714
-0.015312852 -0.065214247 0.026143882
-0.0053007915 -0.064462222 0.02532055
0.0046429774 -0.064828001 0.026689187
0.012370729 -0.0624291 0.028740253
-0.033966918 -0.054092396 0.025882859
-0.02504551 -0.05583914 0.022971842
-0.014815343 -0.057094522 0.022226948
-0.0042936951 -0.057914946 0.021668088
0.0051013385 -0.056994334 0.022257658
0.015055034 -0.054217774 0.025214797
0.020953016 -0.051499482 0.028674727
-0.07343106 -0.041508093 0.02199061
-0.064223386 -0.044028506 0.02285766
-0.054944571 -0.044422697 0.02316758
-0.043712962 -0.044850055 0.024689473
-0.037965473 -0.048745152 0.024145352
0.018502982 -0.048843868 0.022307511
0.025330765 -0.04401226 0.025765255
0.030159537 -0.040010534 0.029955216
-0.083088845 -0.032685272 0.024785923
-0.075559251 -0.036709178 0.026330639
-0.064907312 -0.037032045 0.027939787
-0.054381523 -0.036066674 0.027843773
-0.046317518 -0.036140043 0.028212415
0.029066309 -0.038973905 0.023885613
0.034479354 -0.034398854 0.024867982
0.041416481 -0.030691596 0.027020523
-0.087465994 -0.025483178 0.025443107
0.046215806 -0.029097687 0.02439604
0.054886859 -0.028239032 0.025060382
0.065311782 -0.02798938 0.025308393
0.074727558 -0.027639046 0.024899345
0.084684268 -0.026500452 0.025156938
0.09461055 -0.023056882 0.025631331
0.10046951 -0.020681448 0.028554976
-0.087481327 -0.014636684 0.025046995
0.098898061 -0.019150827 0.022238147
0.10557777 -0.015213964 0.024836898
0.11094548 -0.011300006 0.027418002
-0.0836135 -0.005268442 0.02442329
0.1092637 -0.0086985352 0.020681292
0.11400616 -0.0053084902 0.024967337
-0.080562241 0.00084177777 0.025900364
-0.077242449 0.0057433988 0.024389129
0.11859886 0.003224242 0.024063267
0.12077277 0.007483846 0.026360681
-0.072092116 0.012634972 0.024854036
-0.067446865 0.016674062 0.024516426
0.11999386 0.012466709 0.020254411
0.12132895 0.015281871 0.024418101
-0.061919682 0.021251727 0.024924174
-0.055545393 0.026563814 0.025614642
-0.049471036 0.029906852 0.02884263
0.1199531 0.029690063 0.02099232
0.12118151 0.024762923 0.024826344
-0.05058654 0.030598905 0.022789104
-0.04470212 0.035095923 0.024672536
-0.036449678 0.037980895 0.028565357
0.0057998518 0.038930412 0.029146748
0.01566397 0.037986483 0.026854265
0.024404004 0.038564719 0.02653129
0.030910833 0.039840195 0.029633133
0.11792268 0.036293242 0.024994848
0.12028781 0.031168817 0.027088718
-0.040704831 0.041226044 0.02123573
-0.03428223 0.043624088 0.023550836
-0.024845207 0.045874972 0.025376186
-0.015198993 0.046684891 0.025753466
-0.0048370217 0.04532155 0.02500218
0.0046902904 0.042891286 0.02409528
0.014911237 0.040963136 0.022324175
0.026456194 0.040747344 0.022437397
0.034940295 0.043348048 0.024527779
0.04541887 0.046550829 0.024751693
0.054593507 0.046645883 0.025247166
0.065153152 0.046112437 0.024725623
0.074826978 0.045556311 0.025034243
0.084584333 0.045555376 0.025414573
0.09487889 0.045534242 0.024861591
0.10537528 0.044839907 0.02512083
0.11289682 0.042107545 0.024964521
-0.021826694 0.050860543 0.020425564
-0.015520689 0.050647963 0.02086034
-0.03256781 -0.080947228 0.038761619
-0.024652245 -0.08188723 0.037952948
-0.015257736 -0.081908487 0.037561372
-0.0050309408 -0.081533872 0.038204528
0.0012313621 -0.080725953 0.039492287
-0.043517008 -0.072907388 0.037903417
-0.03505297 -0.07494238 0.035457928
-0.025098428 -0.075541034 0.033072069
-0.015008915 -0.076976866 0.03263713
-0.0047557838 -0.077115431 0.03308918
0.0051666377 -0.075827211 0.034688573
0.01346001 -0.072833933 0.03670289
-0.051625848 -0.062958546 0.039496645
-0.045284983 -0.064852044 0.036047254
-0.036380626 -0.065562792 0.031656269
-0.028412703 -0.069367833 0.030188041
0.0088029318 -0.069464535 0.030217048
0.016176416 -0.065990336 0.033313233
0.021854492 -0.063794836 0.037688162
-0.051257204 -0.055088557 0.038851496
-0.044517919 -0.054895837 0.034199785
-0.039092738 -0.056700669 0.030635659
0.018407783 -0.058857225 0.03122836
0.025137421 -0.053770062 0.035383943
-0.051113956 -0.047415283 0.039362948
-0.044814941 -0.044777121 0.034652703
0.028144779 -0.046131741 0.033672005
0.031231694 -0.043395702 0.03659578
-0.081104942 -0.030368067 0.030760502
-0.074501999 -0.031541076 0.031132296
-0.064787254 -0.031535957 0.031052297
-0.056113474 -0.030962883 0.030232519
-0.044358406 -0.035030559 0.034679491
0.035257567 -0.035916008 0.034272674
0.042357527 -0.030718319 0.034142137
-0.083634309 -0.024238894 0.033088092
-0.074889027 -0.025171075 0.034560289
-0.064959921 -0.025233261 0.033782616
-0.05503273 -0.025191158 0.03220227
-0.045376349 -0.025256002 0.034241728
0.047597416 -0.029414088 0.034982674
0.055252526 -0.029234268 0.03500453
0.064809904 -0.029572664 0.034555998
0.074758865 -0.029667769 0.035462551
0.085567318 -0.028192576 0.035699707
0.095242545 -0.024763025 0.035628442
0.10176945 -0.021315753 0.035461992
-0.085007161 -0.015310265 0.033546697
-0.074958302 -0.015076184 0.036833741
-0.064660639 -0.015193332 0.036260463
-0.054331955 -0.014861912 0.034811802
-0.044933811 -0.014895908 0.035815403
0.10696297 -0.017507296 0.035000816
0.1123826 -0.012312377 0.034884896
-0.082355179 -0.0054561133 0.032787833
-0.075183138 -0.0050366395 0.036164772
-0.065336064 -0.0046732053 0.037345041
-0.054869879 -0.0048849476 0.037400313
-0.045483354 -0.0050511993 0.038268067
0.11709496 -0.0059115272 0.035194691
0.12021916 -0.00095578394 0.036242686
-0.080305398 0.0013001906 0.03011452
-0.074537002 0.0042853393 0.033795472
-0.065088265 0.0051856628 0.037086044
-0.055728249 0.005049651 0.038792457
-0.048182394 0.0018753313 0.03979085
0.11984102 0.00050931796 0.030246699
0.12204202 0.005027357 0.035058569
-0.07160192 0.011629337 0.031785104
-0.064910382 0.014998237 0.033874046
-0.055329595 0.014955751 0.037392113
-0.047180928 0.017146207 0.039094709
0.1233226 0.01528346 0.035546668
-0.062224042 0.020266173 0.031350259
-0.054570582 0.023283079 0.033221465
-0.045353018 0.025448699 0.035387456
-0.035519071 0.026902054 0.038030617
-0.028957903 0.028674869 0.03939357
0.12242404 0.025250485 0.035007577
-0.043080606 0.031163514 0.031644989
-0.034874037 0.033418786 0.033363912
-0.024702337 0.035300419 0.035578664
-0.015537567 0.036686867 0.036585044
-0.0046909191 0.036639877 0.036130641
0.0051392652 0.035450798 0.034576572
0.014686882 0.033814557 0.034639291
0.025510738 0.035508428 0.034794014
0.032537092 0.038593162 0.036112517
0.11789678 0.036438838 0.03459454
0.1204844 0.031488638 0.034601528
-0.023005219 0.041081663 0.030876702
-0.014547258 0.041540425 0.031572785
-0.0059928908 0.040946919 0.03113826
0.037099387 0.041438211 0.034104675
0.04573819 0.043252841 0.034813542
0.054739028 0.043947555 0.034900259
0.064593747 0.044421289 0.035260912
0.074821562 0.045216616 0.034649361
0.085315123 0.045787159 0.034605857
0.0946692 0.045637399 0.034364045
0.10522153 0.044228606 0.034974478
0.1130311 0.041389823 0.034810439
-0.051966261 -0.081398278 0.048369586
-0.044683371 -0.083120443 0.04557436
-0.035346765 -0.08524929 0.044864137
-0.025003657 -0.085865907 0.044640154
-0.015035097 -0.085628644 0.045142747
-0.0043485644 -0.083962977 0.045593064
0.003526256 -0.081620798 0.045235258
-0.06082458 -0.071484134 0.048899427
-0.054294147 -0.075059421 0.045537211
-0.046768501 -0.076367319 0.041407924
-0.038771253 -0.079816446 0.040008787
0.0083999643 -0.079326563 0.043018837
0.014578365 -0.076418787 0.04493659
0.021719385 -0.072526157 0.046925839
-0.061703309 -0.064070053 0.047810216
-0.055556383 -0.064945124 0.04273529
0.026135985 -0.064571559 0.044571653
0.030693695 -0.0606515 0.0497314
-0.06246167 -0.055139609 0.04766839
-0.056600139 -0.054305881 0.042848513
0.028770279 -0.05613916 0.042332977
0.031635106 -0.054151151 0.04651944
-0.061786588 -0.045205146 0.048357893
-0.056051057 -0.044758163 0.043703344
-0.049695473 -0.040267892 0.040204138
0.034252468 -0.045266762 0.045000397
-0.060567532 -0.037188206 0.049410004
-0.054956473 -0.035016611 0.046068743
-0.048191741 -0.033990782 0.042017832
0.037952121 -0.03630029 0.044750351
0.040925216 -0.03152718 0.044600822
-0.052697442 -0.026002767 0.048560958
-0.045651238 -0.024067396 0.044480935
0.045842651 -0.027477007 0.045523528
0.054647837 -0.027270177 0.044990011
0.064837962 -0.028604493 0.044777099
0.074736439 -0.029044628 0.045057513
0.084911279 -0.027666831 0.044618264
0.095295928 -0.024305725 0.044859309
0.1019204 -0.021100044 0.044311646
-0.043434605 -0.015794963 0.045588069
-0.03975476 -0.010867224 0.042481504
0.10666739 -0.01738409 0.044841181
0.11165233 -0.012397045 0.044718813
-0.04131097 -0.0043578236 0.043663215
-0.038910069 -0.0042952038 0.044837192
0.11643574 -0.0054532434 0.045203988
0.12017671 -0.00040642414 0.0415003
-0.044364896 0.0053968756 0.041583102
-0.036719695 0.0055890051 0.046294592
0.11944262 0.0020943738 0.048485041
0.12144745 0.0051119463 0.044959456
-0.043937981 0.013404029 0.041243069
-0.03514507 0.014640017 0.044826102
-0.027939484 0.017590253 0.048133366
0.12332359 0.014731802 0.044866942
-0.040263221 0.020163115 0.040217824
-0.033868656 0.022582371 0.041458026
-0.024656031 0.024557782 0.044650692
-0.015222017 0.026718067 0.047013491
-0.0050712642 0.027487721 0.047408447
0.0046641161 0.027353656 0.046314862
0.015262474 0.027151916 0.045478493
0.023293069 0.027901139 0.046634387
0.12262855 0.025599632 0.045081075
-0.022114873 0.030657867 0.040600765
-0.014010748 0.031686734 0.041923065
-0.0052062976 0.031605989 0.042325292
0.0043467339 0.030948885 0.041290641
0.014145968 0.030333098 0.040477209
0.02660655 0.031710479 0.04364391
0.034261134 0.035517856 0.045319691
0.044655699 0.038434677 0.046686433
0.054146439 0.039136555 0.048363719
0.061225004 0.039738663 0.049556948
0.11678761 0.036311228 0.045784023
0.12051073 0.031585474 0.043508541
0.039858431 0.040050339 0.040649422
0.045609228 0.040652845 0.042109895
0.055739738 0.041218355 0.043695278
0.064993523 0.041935563 0.045006793
0.074541442 0.04338447 0.045024756
0.085289463 0.044832069 0.044404332
0.094683424 0.044238925 0.044717353
0.10529285 0.042437185 0.045065872
0.11219271 0.040788133 0.043873623
-0.053813249 -0.082312569 0.054967072
-0.044982668 -0.085148811 0.055017907
-0.035053801 -0.086082287 0.055200625
-0.025051765 -0.086017378 0.054558937
-0.014644656 -0.085559599 0.055071097
-0.0050636353 -0.08446303 0.054908685
0.0047735116 -0.082118832 0.054807018
0.010946348 -0.080292761 0.056290016
-0.063278392 -0.07426282 0.055333309
-0.058634073 -0.079224221 0.054180399
0.016032303 -0.078105256 0.054638792
0.024992816 -0.073511682 0.055335533
0.030570408 -0.07139542 0.059225027
-0.070433296 -0.061431456 0.058878951
-0.06658259 -0.065113835 0.053976241
0.028514042 -0.068135612 0.052753732
0.032516807 -0.064171739 0.056346301
-0.070950344 -0.053968128 0.058068916
-0.067655325 -0.055345878 0.053001001
0.034857705 -0.055242438 0.05511168
-0.070644125 -0.045540255 0.05851369
-0.067017078 -0.044828843 0.053944547
0.037705749 -0.044894155 0.055298049
-0.06488809 -0.035100754 0.054686006
-0.059165776 -0.031647727 0.050416883
0.039278254 -0.037823029 0.052919649
0.041254234 -0.033191834 0.055681657
-0.062547214 -0.0258976 0.056489356
-0.057171769 -0.024155214 0.052675501
0.045540661 -0.026291216 0.055151582
0.054545917 -0.024277084 0.055295005
0.064845428 -0.025720544 0.05449361
0.075410567 -0.0257263 0.055132385
0.084821425 -0.024880279 0.055169232
0.094723426 -0.022349065 0.054695677
0.10082545 -0.020557821 0.051466629
-0.060917821 -0.01844348 0.05931206
-0.054844122 -0.016179631 0.055690933
-0.048323523 -0.013470504 0.051773209
0.09883114 -0.019276353 0.058944881
0.10515939 -0.015905593 0.055606518
0.11078453 -0.01142861 0.051073015
-0.05132404 -0.0080223745 0.058625646
-0.045530125 -0.0050720437 0.055208869
-0.038871642 -0.0012755207 0.051026259
0.10938071 -0.0088639241 0.058921933
0.11314121 -0.004655743 0.055288773
-0.041797977 0.0014901599 0.057986919
-0.035080995 0.0058541903 0.054885209
0.11694893 0.0047713253 0.056124389
0.12041669 0.0074616047 0.051420249
-0.030677363 0.010681859 0.054871015
-0.025497681 0.015051571 0.054778934
-0.01666864 0.018847916 0.057859238
0.0073120571 0.019588226 0.059127629
0.014380228 0.018788051 0.058203258
0.023495313 0.018816523 0.058332007
0.11863485 0.01520829 0.057810992
0.12126642 0.014872099 0.052603759
-0.021496018 0.020513685 0.05074662
-0.014140433 0.021878518 0.053620383
-0.0049141836 0.022395253 0.055084143
0.0039704647 0.022197584 0.054728743
0.014569268 0.022282187 0.052633569
0.02565052 0.024463912 0.053520326
0.033414084 0.027876157 0.056913711
0.11817691 0.026015278 0.057136901
0.12122679 0.02366494 0.052216042
0.036544356 0.032405611 0.053229537
0.044947352 0.033892702 0.05522209
0.054939713 0.035925541 0.055284336
0.065224715 0.037782144 0.055440601
0.074840643 0.038595676 0.057385854
0.085008271 0.039321929 0.058505386
0.096273229 0.039367646 0.058022693
0.10582377 0.038114402 0.056493614
0.11436352 0.034394111 0.054274473
0.069360308 0.040492531 0.050871287
0.075571284 0.041064043 0.051991571
0.085127003 0.041554414 0.053468533
0.095000364 0.041398443 0.053216767
0.10374459 0.040654678 0.051905394
-0.053576279 -0.081261985 0.063515432
-0.044605937 -0.082385585 0.064707465
-0.035184458 -0.082799524 0.065201946
-0.025304301 -0.083231084 0.064902961
-0.015098932 -0.083334878 0.06506332
-0.0047719129 -0.082941644 0.064708315
0.0051213871 -0.081606798 0.064899139
0.014096994 -0.080393948 0.065664597
0.023966728 -0.080226779 0.068505578
0.030409809 -0.080408931 0.069998696
-0.06451989 -0.074215584 0.064518549
-0.056974843 -0.079037845 0.066513397
-0.048890132 -0.079864964 0.06955535
0.016605351 -0.079477385 0.063261651
0.025222978 -0.077936172 0.064055175
0.03422134 -0.07493446 0.065356798
0.041468158 -0.072635442 0.068989582
-0.071599305 -0.062756538 0.065458737
-0.069002643 -0.068058476 0.064653814
0.03706716 -0.06525147 0.063279979
0.041484784 -0.065398827 0.06835331
-0.073419094 -0.055348542 0.065141283
0.038506862 -0.055069081 0.063240044
0.040971223 -0.055066071 0.0680333
-0.07385987 -0.045489494 0.065341756
0.039383966 -0.045726337 0.062054183
0.040925171 -0.044168647 0.066743575
-0.072166502 -0.035387002 0.065116286
-0.069030583 -0.033143546 0.060700376
0.041872922 -0.034993641 0.064870745
-0.070735618 -0.027252594 0.068095386
-0.06787397 -0.024224596 0.064596675
0.045677666 -0.025288181 0.065406524
0.054633163 -0.021572521 0.063190848
0.065339692 -0.021823149 0.062621422
0.075117283 -0.021813303 0.063061327
0.084448211 -0.021465756 0.062144745
0.092604168 -0.020592779 0.060905535
-0.063932493 -0.015570218 0.06510824
-0.058270242 -0.011669969 0.062433831
0.048956428 -0.018702937 0.069297604
0.055098586 -0.017914133 0.068139598
0.065150529 -0.018190397 0.067627273
0.074815311 -0.018210549 0.067828327
0.084903613 -0.017512215 0.067271866
0.095592663 -0.015798209 0.065557912
0.10288248 -0.013518827 0.063127525
-0.061266325 -0.0087343249 0.068799436
-0.054651897 -0.0055057048 0.065110326
-0.048745606 -0.0017771447 0.06209344
0.098572686 -0.0082488693 0.0692866
0.10615572 -0.0049514072 0.065525375
0.11063373 -0.0025251755 0.06187018
-0.050739471 0.00095460482 0.06827224
-0.044019949 0.0050088381 0.065358169
-0.037754811 0.0081792325 0.062660292
0.1073743 0.0042545521 0.067809962
0.11305587 0.006008327 0.062579229
-0.041328836 0.010414935 0.069829538
-0.034073234 0.012395284 0.065860078
-0.024898766 0.016167188 0.064969875
-0.015105699 0.018714329 0.064989693
-0.0046755518 0.019373285 0.064766891
0.005450476 0.018265966 0.065457642
0.014991414 0.016190322 0.064985558
0.025056399 0.015151873 0.065614164
0.032532558 0.017909369 0.06671235
0.10924803 0.014604503 0.069103986
0.11372367 0.014894244 0.06471809
-0.0076062353 0.020028355 0.060285706
0.029965438 0.021422194 0.060909264
0.036448203 0.023958163 0.06394662
0.045068108 0.02653937 0.065799512
0.054287445 0.028133066 0.067451172
0.061632503 0.029333942 0.068642974
0.10796475 0.02677728 0.068952449
0.11340612 0.025332447 0.064290509
0.046911597 0.030651867 0.060992934
0.055625059 0.032145649 0.062242828
0.064856403 0.032676272 0.065057218
0.07488893 0.035106149 0.064731933
0.085181609 0.036258146 0.064995125
0.095296554 0.035660442 0.065427944
0.10504567 0.033608817 0.064542659
0.112055 0.031097723 0.062092632
-0.042766903 -0.080167741 0.070382319
-0.034138642 -0.08042375 0.071307682
-0.025323775 -0.080807209 0.07221967
-0.014690699 -0.081063092 0.073494337
-0.0042297812 -0.080990329 0.074215047
0.0043006116 -0.080693103 0.074424565
0.015264173 -0.080307804 0.073382087
0.024454622 -0.080497414 0.073787093
0.032583565 -0.080312066 0.073269866
-0.063391313 -0.072158836 0.073906697
-0.054804679 -0.075358339 0.074715652
-0.045087568 -0.077173434 0.075104058
-0.034581818 -0.078279398 0.076095022
-0.025542486 -0.07907442 0.076898396
-0.016237494 -0.079593293 0.078482077
-0.006867894 -0.079846099 0.079154186
0.0059581874 -0.079795212 0.079480365
0.01546164 -0.079596147 0.078502826
0.025785131 -0.079513475 0.078336053
0.035891604 -0.079016499 0.075823143
0.044689737 -0.0744894 0.075031646
-0.071014926 -0.062455833 0.07375025
-0.067046404 -0.067076169 0.076224819
0.046827171 -0.064515121 0.075158946
-0.073421374 -0.055178374 0.075262263
0.044622432 -0.05499186 0.07467182
-0.075115979 -0.045248412 0.075011015
0.042934857 -0.045210324 0.075089224
-0.074312136 -0.034655012 0.074778616
0.042427033 -0.03572854 0.074949704
-0.07149376 -0.025394335 0.075056113
-0.069641352 -0.020532232 0.075023815
0.042981792 -0.025048561 0.07531628
-0.067286089 -0.014652411 0.074540988
0.03947749 -0.011513904 0.079894729
0.044320274 -0.015169744 0.075308129
0.054571547 -0.012992786 0.072230406
0.06584651 -0.013430986 0.072267555
0.075256892 -0.013240644 0.072321713
0.084321938 -0.012992981 0.071369551
0.091655038 -0.011033248 0.070731983
-0.062475614 -0.0067855334 0.075182162
-0.057578869 -0.0024728377 0.074025795
0.037830219 -0.0038946706 0.078356437
0.044995349 -0.0054782815 0.076005846
0.054684728 -0.0052983854 0.076156296
0.065442115 -0.0050088181 0.077217072
0.074475586 -0.005234444 0.076755136
0.084941104 -0.0049937102 0.074937873
0.094492637 -0.0044739749 0.072087072
0.10072014 -0.0019632177 0.07039962
-0.053136963 0.0028305424 0.076229051
-0.047488924 0.0074965078 0.074170604
0.026451141 0.0079955207 0.077052236
0.035002377 0.0053181569 0.07619793
0.044914454 0.0046542576 0.076717384
0.055258527 0.0050298334 0.078388713
0.064890243 0.0048467685 0.07902775
0.074993961 0.0047816169 0.078539409
0.085201755 0.0047449907 0.076895013
0.094895169 0.0049711987 0.074353985
0.10283943 0.0053694774 0.071172081
-0.042910796 0.012228999 0.075757943
-0.035825118 0.015550449 0.074391425
-0.025064671 0.018981209 0.075516835
-0.015286665 0.019612921 0.07483612
-0.0048863138 0.018817052 0.074282259
0.0044429321 0.016746733 0.075070508
0.014954014 0.013414511 0.07545463
0.023601333 0.01135971 0.072983086
0.036001395 0.013895891 0.071945406
0.044751752 0.015030181 0.074502394
0.054997474 0.014746751 0.07680247
0.06453938 0.015613068 0.077338777
0.075223126 0.015216836 0.078117058
0.085229836 0.015268696 0.077679016
0.095087647 0.015153113 0.075697571
0.10393423 0.015556882 0.0723169
0.039822843 0.020117529 0.070188589
0.046775237 0.021621756 0.071718924
0.056067441 0.023765435 0.072440311
0.064998157 0.024916746 0.073654532
0.075408988 0.02551125 0.075307891
0.084999576 0.024922293 0.075943358
0.095046714 0.025134781 0.074484684
0.10351785 0.024510443 0.071857437
0.069264479 0.030584715 0.070528843
0.075906813 0.031351343 0.071341693
0.08548113 0.03176064 0.072158776
0.094185077 0.031333569 0.071639866
0.10183189 0.030111101 0.070230283
-0.053146314 -0.071002483 0.081228159
-0.044324737 -0.072175466 0.083479472
-0.034746502 -0.074331604 0.084624641
-0.025004769 -0.076195076 0.085243814
-0.014862489 -0.07758823 0.085193209
-0.0051899632 -0.078136317 0.084603563
0.0053679347 -0.077719219 0.084776171
0.015261085 -0.076419517 0.085185669
0.025014926 -0.075100757 0.084949851
0.034722611 -0.074577846 0.083796591
0.044644091 -0.072986327 0.083036497
-0.063773766 -0.063905112 0.083438136
-0.055697538 -0.065450758 0.086194217
-0.04626105 -0.067956299 0.088086829
0.02852184 -0.069776878 0.089295857
0.035439808 -0.068095289 0.08902102
0.046683073 -0.065674126 0.087165229
0.050870556 -0.062785961 0.083678365
-0.071408056 -0.053301558 0.08149571
-0.066151813 -0.055530388 0.0862334
-0.059434332 -0.058911525 0.089460492
0.048046816 -0.05360942 0.085746907
0.051065464 -0.057471827 0.084663384
-0.072253861 -0.045087587 0.083412275
-0.06751579 -0.045007605 0.088187829
0.04340044 -0.045567788 0.084992774
-0.072579183 -0.035664465 0.082986407
-0.068001017 -0.035247426 0.087934844
0.039181996 -0.034527972 0.087789647
0.041086119 -0.035277542 0.083044812
-0.071170457 -0.027258359 0.081786096
-0.067264967 -0.024031099 0.08594963
0.038284812 -0.025092063 0.086835116
0.040714364 -0.025473423 0.08169122
-0.064627446 -0.015024593 0.085650072
0.037399761 -0.014802909 0.085043542
0.040423248 -0.017142424 0.080499612
-0.062268794 -0.0074900188 0.084316209
-0.057954948 -0.002709537 0.085988104
0.028421162 -0.0010418509 0.088335544
0.033752132 -0.0050430181 0.084459439
-0.053459547 0.0034079622 0.084842943
-0.048794091 0.0084114494 0.084964804
0.017133379 0.0082847234 0.086550482
0.024018098 0.0049186852 0.084531114
0.030891871 0.0018194052 0.081027873
-0.04357411 0.012779217 0.085475214
-0.035021689 0.016976653 0.085207365
-0.02516452 0.018986292 0.084677666
-0.015426438 0.018999852 0.08439295
-0.0050777677 0.017479142 0.084850974
0.0051437737 0.014094473 0.085230924
0.013059391 0.011457984 0.083863594
-0.033302214 -0.07128904 0.092297167
-0.024567185 -0.072519183 0.094685979
-0.014486717 -0.073200531 0.095529735
-0.0045824661 -0.072878473 0.095113091
0.0046845959 -0.072796263 0.093369581
0.015092252 -0.071636103 0.09181045
0.021964775 -0.070473239 0.09076573
-0.051963821 -0.061358646 0.091369361
-0.044534955 -0.064105615 0.093476027
-0.036492616 -0.067362189 0.096248142
-0.028116416 -0.069370359 0.098685928
-0.0032145209 -0.069672972 0.099498197
0.0051853498 -0.068686686 0.098850921
0.015672833 -0.066984065 0.096389212
0.025066048 -0.064295359 0.094480745
0.034516815 -0.063597046 0.091728017
0.042441569 -0.061432123 0.090937838
-0.061997674 -0.052658159 0.090662055
-0.054567985 -0.055296838 0.093798414
-0.046866238 -0.056417745 0.097946741
0.027111532 -0.056604724 0.098098718
0.034899984 -0.055230599 0.094936073
0.043580107 -0.055053808 0.091604009
-0.062933408 -0.043913204 0.09180215
-0.055304069 -0.044967655 0.096567303
-0.049260568 -0.048939232 0.099537142
0.029689759 -0.048907313 0.099809378
0.03523282 -0.04484259 0.095941991
0.041309584 -0.04767343 0.091547966
-0.06339559 -0.035486054 0.091687754
-0.055531632 -0.035939131 0.097089544
0.034749389 -0.034782082 0.095095724
-0.061840825 -0.025743904 0.091874458
-0.055865511 -0.024863521 0.096459165
0.029551452 -0.022324115 0.099703729
0.033489339 -0.025210382 0.094769821
-0.060836654 -0.017232142 0.090930909
-0.055188108 -0.014791604 0.095669992
-0.049741622 -0.010599053 0.099922791
0.029206671 -0.014668463 0.098672926
0.032227986 -0.015796533 0.094213486
-0.054192249 -0.0056836493 0.093862213
-0.048457555 -0.0033562805 0.098798715
0.027069783 -0.0042741527 0.095382556
0.031054771 -0.0075241602 0.091935195
-0.05132734 0.0020873288 0.092364535
-0.045515407 0.005945839 0.095068239
-0.038258314 0.0086455084 0.098745286
0.0086864959 0.0093727019 0.096861951
0.014680766 0.0068139378 0.094785191
0.021918839 0.0023062939 0.093514867
-0.042329572 0.011256781 0.09234187
-0.034335684 0.013442943 0.095263548
-0.025033187 0.015570716 0.095110536
-0.014822013 0.015765846 0.095409602
-0.0048017562 0.014253486 0.09517125
